   0.0576378    0.0327896   -0.0106112 
  -0.0242163   0.00511699    0.0680404 
   -0.035397    -0.089725   -0.0697354 
  -0.0571821  -0.00871002    0.0620773 
   0.0695416    0.0186651    0.0727824 
   0.0587513    0.0113426    0.0101071 
  -0.0589435    0.0523769    0.0222741 
  -0.0147496   -0.0299995   -0.0418192 
  -0.0152906   -0.0186956   -0.0815847 
   0.0306055   -0.0027793   -0.0127673 
 -0.00558002    0.0083881    0.0439719 
   0.0235895    0.0414031    0.0663969 
  0.00510676   -0.0120497   -0.0395031 
  -0.0496891   -0.0800805   -0.0830977 
  -0.0132871  0.000681193   -0.0263672 
  -0.0254607    0.0311061   -0.0136403 
   0.0275474    0.0287225    0.0391735 
  -0.0231577    0.0628631    -0.033186 
  -0.0072045    0.0815232   -0.0961548 
  -0.0312821  -0.00925234   -0.0202603 
   0.0836017    0.0752329    0.0489825 
    -0.01099   -0.0103107   -0.0514162 
   0.0558209   -0.0371506   -0.0401508 
   -0.042241   -0.0976286  -0.00692135 
  -0.0771559    0.0113733  -0.00446856 
   0.0109464   0.00814583   -0.0414648 
  -0.0068531   -0.0328449   0.00416524 
   -0.065995    0.0467823   -0.0745326 
  -0.0324239    -0.122973    0.0115945 
   0.0976875   -0.0558032   0.00173966 
  -0.0367702    0.0304605    0.0047708 
    0.051081   -0.0641894    0.0685551 
   0.0667364    0.0497935    0.0683238 
   0.0471183    0.0213063    0.0397804 
  -0.0964269   -0.0275195   -0.0382921 
   0.0197513    0.0909064   -0.0636911 
  -0.0200925    0.0433989   -0.0862404 
  -0.0362779    -0.018877    0.0327568 
 0.000197203   -0.0337037     0.135942 
   0.0246499   -0.0410946  -0.00475328 
   0.0972861   -0.0331352      0.06285 
  -0.0354929    0.0533596   -0.0155652 
    0.053713     0.024988   -0.0697893 
    -0.01594    0.0227081   -0.0166166 
   0.0945018  -0.00154125  -0.00384525 
   -0.110551   0.00640895   -0.0648594 
  -0.0108785   -0.0981558   -0.0658398 
    0.035618    0.0376771    0.0162196 
      0.0617   -0.0114991    0.0556779 
  -0.0347084    0.0507977    0.0431803 
  -0.0695935  -0.00156086    0.0398635 
   0.0262134   -0.0394366   0.00482347 
   0.0409257     0.105468     0.085663 
   0.0938117   -0.0601417   -0.0876522 
   0.0043135   -0.0184048    0.0776148 
   0.0826455    0.0367916   -0.0719115 
   0.0223637 -0.000376127   -0.0338747 
   0.0209026   0.00748344   -0.0151428 
  -0.0150879    0.0542383    0.0649694 
   0.0842165    0.0547585    -0.038334 
    0.028097    0.0642152   -0.0266774 
   0.0376816    0.0416438    0.0152633 
 -0.00112676   -0.0531374   -0.0474235 
  -0.0354278   0.00788883    0.0516771 
   0.0183116     0.026754    0.0534881 
  -0.0456561    0.0714812    0.0526219 
   0.0455335   -0.0349233   -0.0525002 
  0.00832062    0.0116963   -0.0462376 
   0.0959505   -0.0168971    0.0554531 
  -0.0912237   -0.0237625   -0.0397372 
   0.0332581     0.110554    0.0871036 
  -0.0200328   -0.0150545     0.185157 
  0.00800692    0.0598734  -0.00223502 
  -0.0375216    0.0581552   -0.0515828 
  -0.0745924   -0.0121214  -0.00633726 
   0.0087643   -0.0980824  -0.00411763 
  -0.0338434   0.00114506   -0.0496123 
   0.0503924    0.0417735   0.00941858 
  -0.0589793   0.00330472    0.0360393 
  -0.0474672   -0.0508586   -0.0337996 
  -0.0241552   -0.0223624     0.038034 
-0.000934508   -0.0226191    0.0114855 
  -0.0438226   -0.0367851    -0.065649 
  -0.0773378   -0.0525394   0.00368449 
   0.0446899    0.0124786   -0.0267573 
   0.0288079    -0.043053   -0.0718845 
  -0.0434837   -0.0829288    0.0362295 
   0.0282715    0.0886137    0.0380378 
    -0.16943    -0.033052    -0.014131 
   0.0172265   -0.0869854    0.0306479 
  -0.0278384   -0.0110435 -0.000556397 
   0.0117935   -0.0956684     0.132056 
  -0.0372279    0.0158562    0.0170728 
   0.0120663   0.00816052   -0.0224942 
   0.0227914    0.0407745   -0.0742935 
-0.000820779    0.0211307  -0.00891558 
  0.00326719  -0.00779097  -0.00248561 
   0.0317564    0.0505002   -0.0987399 
  -0.0913308    0.0567293    0.0823165 
   0.0463179   -0.0419661    0.0663539 
   0.0750855    0.0590198  -0.00823047 
  -0.0168392   0.00727288    0.0574304 
  -0.0522455   -0.0870861   -0.0658854 
  -0.0266197   0.00041974    0.0696383 
   0.0855483    0.0206902    0.0684393 
   0.0455842   0.00700907   0.00855451 
  -0.0622169    0.0617358    0.0227627 
  -0.0209978   -0.0213751   -0.0410042 
 -0.00954767   0.00215006   -0.0907969 
   0.0288034  -0.00306276   -0.0144436 
  -0.0171591     0.009541    0.0517449 
   0.0155669    0.0467637    0.0811804 
  -0.0023561   -0.0159256   -0.0263498 
  -0.0550915   -0.0660133   -0.0795104 
  -0.0110832   0.00748281    -0.048936 
  -0.0331965    0.0233056   0.00239379 
   0.0137382    0.0150005    0.0308388 
  -0.0199664    0.0672194   -0.0409117 
  -0.0131912    0.0694201    -0.105913 
  -0.0322478   -0.0209899  -0.00694739 
   0.0843411    0.0882398    0.0363604 
 2.05839e-06   -0.0181026   -0.0571164 
   0.0502022   -0.0260407   -0.0391672 
  -0.0257946    -0.100544  -0.00816494 
   -0.099705    0.0147527    0.0108227 
  0.00528436   0.00835368   -0.0437026 
  -0.0173861   -0.0296273   -0.0117611 
  -0.0702628     0.051285   -0.0699715 
  -0.0293828    -0.114781    0.0167519 
     0.08486   -0.0508722  -0.00428621 
  -0.0155489    0.0231524  -0.00468407 
   0.0415556   -0.0523886    0.0573254 
   0.0690646    0.0515975    0.0629487 
   0.0583503     0.031166    0.0412961 
  -0.0875451    -0.025893    -0.040568 
   0.0196685    0.0825807   -0.0557629 
   -0.016506    0.0430231    -0.095244 
   -0.028608   -0.0189772    0.0203648 
 -0.00661965   -0.0465128     0.137746 
  0.00554038   -0.0317752 -0.000380503 
    0.104209   -0.0265757    0.0558053 
  -0.0277535    0.0628774  -0.00985575 
   0.0636031    0.0157931   -0.0580295 
  -0.0205742    0.0134894   -0.0146059 
   0.0869898   0.00747942   0.00651936 
    -0.11555   0.00786293   -0.0680568 
  -0.0112519   -0.0970151   -0.0576774 
    0.036332    0.0367246    0.0269698 
   0.0663395    0.0135562    0.0599179 
  -0.0352128    0.0509726    0.0489796 
  -0.0773347  0.000181476    0.0497119 
   0.0351101   -0.0469321  -0.00450083 
   0.0286835    0.0937721    0.0924868 
    0.118711   -0.0602373   -0.0901553 
 -0.00169297   -0.0262443    0.0786928 
   0.0916475    0.0396197   -0.0744367 
   0.0196951     0.015173   -0.0327368 
   0.0207952    0.0205032   -0.0200822 
  -0.0111179    0.0722396    0.0716462 
   0.0845392    0.0466992    -0.031521 
   0.0199182    0.0723212   -0.0221277 
   0.0524429    0.0299597    0.0233105 
 -0.00115108   -0.0398838   -0.0271934 
  -0.0263126    0.0196302    0.0473708 
   0.0281084    0.0315531    0.0507321 
  -0.0538877    0.0885555    0.0489439 
    0.044278   -0.0321698   -0.0584546 
   0.0216919    0.0133888   -0.0332995 
   0.0864723   -0.0159493    0.0570624 
  -0.0882793   -0.0452184   -0.0294709 
   0.0404719     0.104893    0.0743764 
  -0.0107832   -0.0168216     0.163927 
  0.00140097    0.0700328   0.00276788 
  -0.0285228    0.0604167   -0.0563077 
  -0.0700817  -0.00942018   -0.0158374 
  0.00990139   -0.0951133    0.0120846 
  -0.0319118   0.00986359   -0.0533678 
   0.0540427    0.0374952    0.0112064 
  -0.0484068   0.00228556    0.0308871 
  -0.0520162   -0.0527023    -0.044851 
  -0.0339734   -0.0211253    0.0492783 
  0.00545494   -0.0174524   0.00307643 
  -0.0427597   -0.0402985   -0.0779385 
  -0.0808668   -0.0586946   0.00497935 
   0.0423234    0.0194325   -0.0423104 
   0.0185929   -0.0320731   -0.0692465 
   -0.036998    -0.072491     0.037298 
   0.0273917    0.0884529    0.0403986 
   -0.154254    -0.031058   -0.0204239 
   0.0365625   -0.0714476    0.0483709 
  -0.0432922   -0.0101472   -0.0117096 
  0.00835478    -0.122015     0.127052 
  -0.0150789    0.0311484    0.0201179 
   0.0201451  -0.00294682   -0.0147311 
   0.0176095    0.0561732   -0.0727425 
 -0.00477326    0.0275102  -0.00822904 
   0.0148791   0.00180709    0.0181452 
   0.0406895    0.0510984   -0.0912771 
  -0.0958296    0.0703711    0.0938503 
   0.0560437   -0.0300533    0.0482243 
   0.0880449    0.0694421    -0.011195 
  -0.0310558     0.013976    0.0587507 
  -0.0433102   -0.0749018   -0.0699374 
  -0.0366799   0.00686367    0.0684499 
   0.0844728    0.0369412    0.0688782 
   0.0321388    0.0184545   0.00511141 
   -0.051303    0.0651764    0.0186362 
   -0.015089   -0.0311047   -0.0254331 
  -0.0270083  -0.00327023   -0.0982367 
   0.0222114  -0.00432639   -0.0220057 
  -0.0178447     0.004886    0.0463124 
   0.0200842     0.052865    0.0536099 
 -0.00151232   0.00413568   -0.0351138 
  -0.0495905   -0.0523295   -0.0660629 
  0.00344619  -0.00237653   -0.0439716 
  -0.0460327    0.0214934   0.00189097 
  0.00493862    0.0107916    0.0238721 
 -0.00895458    0.0733722   -0.0420421 
  -0.0240893    0.0783988    -0.115161 
  -0.0424376   -0.0237945     -0.01498 
   0.0874703     0.106428    0.0481644 
  0.00358459   -0.0067226   -0.0519579 
   0.0306058   -0.0278064   -0.0252243 
  -0.0351203     -0.09645  -0.00176409 
  -0.0915842    0.0255493  -0.00167916 
  0.00401674   0.00963779   -0.0476398 
  -0.0162689   -0.0106836   0.00954229 
  -0.0714654    0.0533684   -0.0871317 
  -0.0127184    -0.124201    0.0214808 
    0.074926   -0.0526792  -0.00905808 
  -0.0021373    0.0216519   0.00580529 
   0.0337781   -0.0417216    0.0650155 
   0.0834441    0.0508452    0.0723866 
   0.0772841    0.0236615    0.0597693 
  -0.0900264  -0.00436346   -0.0409977 
   0.0294404     0.102453   -0.0483459 
  -0.0340215    0.0525721   -0.0865004 
  -0.0165688   -0.0119387    0.0391613 
 -0.00245899   -0.0463207     0.141419 
   0.0104953   -0.0351275    0.0188282 
    0.107011   -0.0316918    0.0790241 
  -0.0076073    0.0582928   -0.0137295 
   0.0617767   0.00965205   -0.0597044 
 -0.00518086    0.0157379    -0.034698 
   0.0946728 -0.000474252    0.0157757 
   -0.116875    0.0193958   -0.0629848 
  -0.0255237   -0.0949369   -0.0631139 
   0.0502363    0.0361715    0.0276823 
    0.066169   0.00834068    0.0557181 
  -0.0267805    0.0187086    0.0349147 
  -0.0926135    0.0146486    0.0417348 
   0.0309622   -0.0539345   -0.0046457 
   0.0159698    0.0747429    0.0818284 
    0.109252   -0.0489376   -0.0998312 
 -0.00473096   -0.0454212     0.065439 
   0.0961517    0.0309469   -0.0991203 
   0.0181821    0.0215393   -0.0460869 
   0.0272245    0.0228606  -0.00759301 
  -0.0217052    0.0759741    0.0681616 
   0.0847907    0.0335718   -0.0256869 
   0.0146856    0.0693609   0.00560933 
   0.0537186    0.0179625    0.0221361 
  -0.0103222   -0.0505152   -0.0393993 
  -0.0152816    0.0151703    0.0774291 
   0.0314142    0.0296771     0.052562 
  -0.0436209    0.0738516     0.054578 
   0.0538849   -0.0273043   -0.0577165 
   0.0211618    0.0171261   -0.0300627 
   0.0874488  -0.00853287    0.0519519 
  -0.0911305   -0.0574725   -0.0191133 
   0.0397904    0.0952942    0.0662608 
  -0.0087803  -0.00215088      0.17075 
   0.0125417    0.0640386   0.00126176 
  -0.0364781    0.0590616   -0.0704576 
  -0.0719686   0.00700868    -0.010998 
 -0.00503084   -0.0964231    0.0188267 
  -0.0427845  -0.00133804   -0.0643101 
   0.0646566     0.046545    0.0158939 
  -0.0477311    0.0121003    0.0275246 
  -0.0557398   -0.0737796    -0.036459 
   -0.043131   -0.0268225    0.0572014 
-7.42878e-05   -0.0305183     0.010454 
  -0.0525973    -0.021954   -0.0816409 
  -0.0661744    -0.070045    0.0205145 
   0.0517607   0.00302418   -0.0361024 
   0.0377176   -0.0334654   -0.0683861 
  -0.0268593   -0.0781813    0.0274295 
   0.0219652    0.0829482    0.0522246 
   -0.164935   -0.0333186    0.0102058 
   0.0516066   -0.0698345    0.0424828 
  -0.0360114  0.000973262   -0.0206753 
   0.0103552    -0.107223     0.123498 
  -0.0119635    0.0304884    0.0280702 
   0.0186689    0.0116628   -0.0147352 
   0.0282919    0.0596045   -0.0766856 
  -0.0106089    0.0226593   -0.0233949 
   0.0170934  -0.00180015     0.024606 
   0.0464773     0.043344    -0.105831 
  -0.0921603     0.063474    0.0825503 
   0.0606062   -0.0278183    0.0608632 
   0.0868745    0.0566517   -0.0286538 
  -0.0336621   0.00966568    0.0522706 
  -0.0366006   -0.0627984   -0.0653325 
  -0.0231949   0.00964872    0.0628849 
    0.085084    0.0322086    0.0815506 
   0.0249004    0.0178048   -0.0115271 
  -0.0379049    0.0783881   0.00623816 
   -0.012379   -0.0288697   -0.0413444 
  -0.0336562   -0.0211466   -0.0909348 
   0.0283761   0.00423282   -0.0303478 
   -0.024624    0.0137038    0.0370283 
   0.0220765     0.055376    0.0779768 
  0.00597823  -0.00201531   -0.0370527 
  -0.0407594   -0.0524335   -0.0653877 
   0.0145434   0.00584932   -0.0344907 
  -0.0453547   0.00569573   0.00036225 
   0.0188521   0.00514415    0.0350776 
 -0.00974165    0.0792597    -0.035768 
  -0.0385775    0.0793865    -0.113559 
  -0.0439182   -0.0257692   0.00641032 
   0.0989075    0.0912156    0.0385856 
  -0.0071384   -0.0185689   -0.0452438 
   0.0374747   -0.0163079    -0.024605 
  -0.0327302   -0.0946211  0.000560635 
  -0.0968572    0.0366632   0.00730813 
-0.000716852   0.00746505   -0.0466586 
  -0.0237143   -0.0102266   -0.0019466 
  -0.0663243    0.0376713   -0.0986678 
  -0.0157675     -0.13136    0.0155277 
   0.0670766   -0.0568971   -0.0220464 
  -0.0125169    0.0243299    0.0313955 
   0.0395983   -0.0597049    0.0645947 
    0.084601    0.0458175    0.0604815 
   0.0783691    0.0354166    0.0561631 
  -0.0857608  -0.00283751   -0.0433621 
   0.0356311      0.10161   -0.0466682 
  -0.0414882    0.0480439   -0.0914659 
  -0.0139132   0.00621793    0.0514345 
  -0.0107079   -0.0457119     0.149536 
   0.0183385   -0.0422523    0.0205853 
   0.0958084   -0.0389526    0.0916359 
  -0.0106861    0.0572954  -0.00611767 
   0.0602755    0.0125489    -0.048671 
  -0.0174208   0.00487608    -0.049253 
   0.0993025   -0.0085118    0.0153679 
   -0.114889    0.0139919    -0.073305 
  -0.0349708    -0.087203   -0.0336142 
   0.0490571    0.0190277    0.0338417 
   0.0767369    0.0188027     0.043861 
  -0.0353048    0.0104626    0.0319027 
  -0.0833163    0.0104302    0.0246825 
   0.0197571   -0.0459326   -0.0088881 
   0.0103424    0.0637094    0.0733844 
    0.094156   -0.0452302    -0.089223 
 -0.00968561   -0.0405841     0.071457 
    0.088081     0.020362    -0.100997 
 -0.00197548    0.0190908   -0.0407825 
   0.0326757     0.014297   0.00303721 
  -0.0262715    0.0723183    0.0547775 
    0.106735    0.0292652  -0.00879142 
  0.00243324    0.0664405   -0.0117516 
   0.0620436    0.0216558    0.0318317 
  -0.0173741    -0.043444   -0.0299229 
  -0.0381544   0.00171237    0.0742325 
   0.0369421    0.0352735    0.0504834 
  -0.0243792     0.101883     0.058422 
   0.0549331   -0.0325033   -0.0482821 
   0.0200964    0.0373932   -0.0384114 
   0.0806465   0.00465071    0.0509258 
  -0.0884322   -0.0843132   -0.0199947 
   0.0372338     0.102338     0.071757 
  -0.0103747  0.000235719     0.171053 
-0.000899423    0.0539634   -0.0182272 
  -0.0372462    0.0524773   -0.0780548 
  -0.0700783   0.00559908  -0.00927113 
  -0.0119253    -0.105497   0.00751308 
  -0.0331427    0.0116967   -0.0639463 
   0.0655734    0.0346959   0.00787363 
  -0.0518549   0.00974563    0.0135006 
  -0.0629502   -0.0788681   -0.0504447 
  -0.0384883   -0.0472005    0.0412859 
 -0.00351681   -0.0433696    0.0197434 
  -0.0499271   -0.0201899   -0.0907465 
  -0.0798857   -0.0856511    0.0318286 
   0.0642043   0.00436437    -0.046299 
   0.0387403   -0.0276383   -0.0689793 
  -0.0296663   -0.0977276    0.0290736 
   0.0216862    0.0905528    0.0393074 
   -0.166747   -0.0368296   0.00552413 
   0.0589139   -0.0654283    0.0444034 
  -0.0427244    0.0042882   -0.0249015 
  0.00751859    -0.105835     0.119889 
  -0.0229907    0.0346694    0.0350404 
    0.012378    0.0130659   -0.0222827 
   0.0377011    0.0528739   -0.0870227 
 -0.00669994    0.0224873   -0.0124599 
   0.0102178  -0.00446594    0.0386152 
    0.047928    0.0475529    -0.109425 
   -0.114188    0.0670855    0.0936191 
   0.0490307   -0.0210272    0.0693175 
   0.0666162    0.0580461  -0.00810328 
  -0.0450135  -0.00779616     0.051116 
  -0.0376887   -0.0716624   -0.0707451 
  -0.0152278   0.00896238    0.0797392 
   0.0821712    0.0208434    0.0892293 
  0.00128307    0.0293577   -0.0070121 
  -0.0372259    0.0870933   0.00452255 
  -0.0225794   -0.0426074   -0.0237772 
  -0.0215932   -0.0213651   -0.0872017 
   0.0297286   -0.0131568   -0.0218878 
  -0.0342191    0.0139204    0.0537163 
   0.0258546    0.0533009    0.0780577 
  0.00211705   0.00268351    -0.028838 
  -0.0362119   -0.0637373   -0.0669712 
   0.0169815   0.00410754   -0.0390061 
  -0.0435408   0.00943444    0.0143454 
   0.0177758  -0.00025161    0.0352209 
 -0.00427956     0.059323   -0.0447372 
   -0.043183    0.0817513    -0.129021 
  -0.0558311   -0.0179224  -0.00567947 
    0.110363     0.103151    0.0288273 
 -0.00463148   -0.0250894    -0.050776 
   0.0330152  -0.00794893   -0.0237472 
  -0.0282641   -0.0982496  -0.00513681 
  -0.0942222    0.0371836    0.0132574 
 -0.00645093 -0.000141087   -0.0299506 
  -0.0359479   -0.0138292   0.00306492 
  -0.0589967    0.0310384    -0.101837 
  -0.0218872     -0.11677    0.0316027 
   0.0605455   -0.0694555 -0.000819697 
  -0.0128859    0.0410038    0.0145535 
   0.0262917   -0.0626941    0.0617387 
   0.0889056    0.0375862     0.063193 
   0.0829821    0.0276975    0.0637743 
  -0.0955465   0.00665254   -0.0384523 
   0.0256207    0.0865913   -0.0413391 
  -0.0514831    0.0448454   -0.0887171 
  -0.0290463   0.00848336    0.0451096 
 -0.00542144   -0.0510018     0.149019 
   0.0119019   -0.0416831    0.0195488 
   0.0944833   -0.0464709    0.0897896 
  -0.0108024    0.0653211   0.00668012 
   0.0739964    0.0416537   -0.0518749 
  -0.0170153   -0.0148774   -0.0658286 
   0.0849407    0.0165502    0.0218995 
   -0.114764    0.0206075   -0.0827601 
  -0.0446491   -0.0926281   -0.0129347 
   0.0436554    0.0328652    0.0513467 
   0.0652042    0.0216539    0.0397912 
  -0.0483416    0.0215162    0.0315072 
  -0.0934941  -0.00451273    0.0228292 
   0.0120116    -0.056156  -0.00388008 
 -0.00673884    0.0507106    0.0861324 
    0.110844    -0.049099   -0.0902665 
  -0.0153316    -0.025352    0.0741296 
    0.103762    0.0234745   -0.0918207 
   0.0162859   -0.0098886   -0.0353808 
   0.0262599    0.0167196   0.00327905 
  -0.0289957    0.0696994    0.0541698 
   0.0963037    0.0323656  -0.00900888 
 -0.00486906    0.0706098   -0.0119047 
   0.0807021    0.0293978    0.0348804 
  -0.0159821     -0.03872   -0.0306441 
  -0.0377233   0.00646058    0.0690444 
   0.0461362    0.0354344    0.0492429 
   -0.040588     0.103111    0.0542199 
   0.0519872   -0.0343653   -0.0355113 
 -0.00416663     0.045188   -0.0346044 
   0.0738926  -0.00176506    0.0496768 
  -0.0657175   -0.0834538   -0.0227801 
    0.045343     0.107702    0.0615166 
  -0.0243226   -0.0134645     0.177002 
 -0.00621852    0.0588524   -0.0311296 
   -0.039393    0.0535958   -0.0710546 
  -0.0785975    0.0261242   -0.0126896 
   -0.022837    -0.110902    0.0155516 
  -0.0106833   0.00896119   -0.0488131 
   0.0550949    0.0417177  -0.00339242 
  -0.0587115    0.0126813  -0.00110946 
  -0.0594194   -0.0929856   -0.0426672 
  -0.0297735   -0.0538829    0.0564234 
  -0.0166754   -0.0434023    0.0331637 
  -0.0541513   -0.0139934   -0.0808123 
  -0.0756144   -0.0825992    0.0368765 
   0.0673788   0.00956276   -0.0543065 
   0.0469728   -0.0234354   -0.0661179 
  -0.0206015   -0.0821943    0.0211928 
   0.0275876    0.0812308    0.0326679 
   -0.150089   -0.0415908     0.023395 
   0.0531128   -0.0862741     0.038669 
  -0.0460819  -0.00396347   -0.0294391 
 -0.00679857    -0.100574     0.109324 
  -0.0208582    0.0331145    0.0341558 
    0.021887    0.0130814   -0.0285906 
   0.0503189    0.0645631   -0.0927227 
  -0.0100708    0.0132687   -0.0103437 
  -0.0101488  -0.00324664    0.0443508 
   0.0527153    0.0461725    -0.096821 
   -0.124762    0.0584898     0.091817 
   0.0347357   -0.0254484    0.0675132 
   0.0738122    0.0651124  -0.00220146 
   -0.033504   -0.0111749    0.0469374 
  -0.0436917   -0.0638957   -0.0694124 
  -0.0212678   0.00214429    0.0882433 
   0.0902014    0.0156033    0.0888318 
  0.00860446    0.0231143    -0.026466 
  -0.0445527    0.0873434    0.0198372 
    -0.02838   -0.0369983   -0.0312227 
 -0.00864042   -0.0138514   -0.0808807 
   0.0381296   -0.0211081   -0.0200397 
  -0.0267037    0.0182444    0.0492757 
   0.0358703     0.042291    0.0570408 
  -0.0085158  7.10338e-05   -0.0231811 
  -0.0356831   -0.0681331   -0.0832266 
-0.000592645     0.012443   -0.0287376 
  -0.0515779    0.0211183    0.0200564 
   0.0233504   0.00451733    0.0449304 
 -0.00897847    0.0607992   -0.0483124 
  -0.0326598    0.0742131    -0.135121 
  -0.0647854   -0.0299114   0.00422306 
    0.137021    0.0940713    0.0202245 
 -0.00181128   -0.0365018   -0.0498842 
   0.0468205   -0.0114967   -0.0345912 
 -0.00382499   -0.0887587   0.00461642 
  -0.0965087    0.0385306   -0.0171189 
  -0.0359385  -0.00483461   -0.0109605 
  -0.0373386  -0.00214805  -0.00523886 
  -0.0578351    0.0250208    -0.105717 
  -0.0118331    -0.117435    0.0295077 
   0.0696037   -0.0740324   0.00912769 
  -0.0164682    0.0352285   0.00337468 
   0.0194537   -0.0614652    0.0441925 
   0.0847078    0.0334189    0.0648488 
   0.0775985    0.0267182    0.0513856 
  -0.0879493   0.00494675   -0.0342576 
   0.0387744    0.0883098   -0.0458973 
  -0.0610646    0.0417707   -0.0899541 
  -0.0182262   0.00950119    0.0428756 
-0.000681386   -0.0587735     0.146858 
   0.0154276   -0.0410384     0.020299 
   0.0930122   -0.0152597      0.10016 
-0.000280875    0.0727692    0.0135176 
    0.075471    0.0529304   -0.0795963 
  -0.0127092  -0.00766031   -0.0716931 
   0.0799504    0.0154786    0.0131845 
   -0.117632    0.0247674   -0.0670876 
   -0.044736   -0.0938561   0.00766705 
   0.0412127    0.0418083    0.0709377 
   0.0589788    0.0256628    0.0344437 
  -0.0502274    0.0249739    0.0354252 
     -0.1017   0.00464333    0.0259751 
-0.000504459   -0.0671971  -0.00766452 
   -0.013552    0.0578983    0.0806257 
    0.110948   -0.0376018   -0.0946498 
 -0.00318044   -0.0171943    0.0873513 
   0.0964922    0.0126261   -0.0970729 
  0.00767318    -0.019854   -0.0332334 
   0.0266724  -7.0202e-05   -0.0198139 
  -0.0435184    0.0562308    0.0397857 
    0.095522    0.0589889   -0.0159641 
 -0.00713188    0.0674208  -0.00850368 
   0.0924209    0.0457553    0.0223627 
 -0.00511226   -0.0339163   -0.0328338 
  -0.0467107   0.00162035    0.0818047 
   0.0240963    0.0308523    0.0516577 
  -0.0427011     0.116316    0.0709057 
   0.0534888   -0.0228909   -0.0419925 
  0.00578608    0.0543189   -0.0286899 
   0.0845793   -0.0100004    0.0635109 
  -0.0752835   -0.0803081  -0.00356557 
   0.0520372     0.115763     0.057086 
  -0.0324225   -0.0211778     0.178834 
 -0.00778858    0.0684842     -0.02886 
  -0.0410206    0.0614279   -0.0758972 
  -0.0688013     0.031927   -0.0181065 
  -0.0134049   -0.0981077    0.0150256 
 -0.00682985    0.0274957   -0.0514987 
   0.0650202     0.038633    -0.013259 
  -0.0513122    0.0142756   -0.0130205 
  -0.0749031   -0.0969431   -0.0520266 
  -0.0225282   -0.0695128    0.0779242 
  -0.0214075   -0.0430666    0.0191052 
  -0.0395792  -0.00583694    -0.062606 
  -0.0678813   -0.0670306    0.0584766 
   0.0796415    0.0126677   -0.0691113 
   0.0560903   -0.0179178   -0.0844099 
  -0.0260895   -0.0837055    0.0219042 
   0.0275609    0.0858253    0.0475176 
   -0.147258   -0.0549347   0.00778455 
   0.0644563   -0.0677477    0.0536968 
  -0.0393249   0.00945917   -0.0273597 
 -0.00683335   -0.0929788     0.115842 
 -0.00951167    0.0316079     0.038602 
   0.0332795   0.00801746   -0.0244373 
   0.0579268    0.0683451   -0.0634819 
  -0.0186182    0.0200432    0.0183091 
  -0.0155377 -0.000763618    0.0392877 
   0.0616033     0.039709   -0.0984424 
   -0.118755    0.0599182    0.0816079 
   0.0243973   -0.0301087    0.0786561 
   0.0828335    0.0549707   0.00573036 
  -0.0172491  -0.00583781    0.0358292 
  -0.0336984   -0.0473922    -0.073598 
  -0.0208541   0.00510429    0.0940825 
   0.0828608    0.0143679    0.0825768 
  0.00569809    0.0347846   -0.0174732 
  -0.0587285     0.090983   0.00601561 
  -0.0242423   -0.0457881   -0.0270715 
 -0.00600692  -0.00806458   -0.0819899 
   0.0370932    -0.017846   -0.0217665 
  -0.0259313    0.0243257    0.0419616 
   0.0526919    0.0339748    0.0580528 
  -0.0225587    -0.018682   -0.0168454 
  -0.0259288   -0.0457296   -0.0987722 
  0.00343271    0.0182629   -0.0315552 
  -0.0575363    0.0125559    0.0169122 
   0.0156835    0.0248566    0.0509015 
 -0.00728229    0.0532391   -0.0518941 
  -0.0403962    0.0777375    -0.124129 
  -0.0617408     -0.02361    0.0110347 
    0.135356    0.0958686    0.0241605 
  -0.0108697    -0.038734   -0.0468765 
   0.0454664  -0.00996781     -0.03208 
  -0.0111178    -0.114602 -0.000104647 
  -0.0900149    0.0207998   -0.0250117 
  -0.0415203   0.00765044   -0.0280699 
  -0.0537054   -0.0126588   -0.0120735 
  -0.0627372    0.0326971    -0.107293 
 -0.00874002    -0.108777    0.0362658 
   0.0748899   -0.0652181    0.0179302 
  -0.0209455     0.042501   0.00614711 
    0.033238   -0.0602497    0.0193215 
   0.0718624    0.0397417    0.0569702 
   0.0875676   0.00808431    0.0595044 
  -0.0943536   0.00653614   -0.0344016 
   0.0381514     0.100289   -0.0586816 
  -0.0578409    0.0413448   -0.0878354 
  -0.0194741   -0.0102817    0.0417909 
   0.0153839   -0.0530716     0.157343 
   0.0122519   -0.0527965    0.0321208 
    0.103657   -0.0197442     0.110373 
  -0.0108959    0.0663002   0.00396062 
   0.0927494    0.0518794   -0.0843736 
 -0.00251274   -0.0138195   -0.0630014 
   0.0975055   0.00847231    0.0223351 
   -0.120749     0.023711   -0.0780629 
  -0.0394342    -0.101189   -0.0185317 
   0.0427631    0.0414901    0.0928011 
   0.0615337    0.0429656    0.0345605 
  -0.0589193    0.0318047    0.0277785 
   -0.117652    0.0103271    0.0392828 
  -0.0134879   -0.0739516  -0.00484276 
   -0.013207    0.0533942    0.0696102 
     0.10863   -0.0368069   -0.0921902 
  0.00660318   -0.0176729    0.0750286 
   0.0972697    0.0151423   -0.0987503 
  0.00646391   -0.0197547   -0.0380269 
   0.0255733   0.00757164   -0.0182731 
  -0.0328976    0.0553935    0.0353083 
    0.103967    0.0579068  -0.00879441 
  -0.0116653    0.0604566   -0.0162801 
   0.0849305    0.0481507    0.0176255 
  -0.0014492   -0.0257713   -0.0267279 
  -0.0455947   0.00690028    0.0805042 
   0.0244378    0.0327696    0.0308903 
   -0.044045     0.117311    0.0551331 
   0.0552583   -0.0305458   -0.0460469 
  0.00711001    0.0320588   -0.0328684 
    0.100157   -0.0277396     0.075698 
  -0.0738983   -0.0706483  -0.00537792 
   0.0450373     0.123197    0.0578193 
   -0.029896 -0.000977763     0.187025 
 -0.00731399    0.0684929   -0.0309401 
  -0.0341954    0.0553641   -0.0820778 
  -0.0813266    0.0167041   -0.0137107 
  -0.0368324   -0.0938664    0.0176126 
 -0.00867897    0.0240825   -0.0354353 
   0.0663649    0.0552917   -0.0239854 
  -0.0562731   0.00435916   -0.0128802 
  -0.0780068     -0.10898   -0.0399979 
  -0.0156821   -0.0812022    0.0601028 
  -0.0164114   -0.0433597    0.0236619 
  -0.0416849    0.0117738   -0.0639621 
  -0.0633536   -0.0561641    0.0517953 
   0.0857554    0.0225752   -0.0772577 
    0.062392   -0.0195928      -0.1079 
  -0.0249528   -0.0936552    0.0247585 
   0.0213144    0.0656211    0.0483627 
   -0.163899   -0.0562953   0.00440748 
   0.0563335   -0.0689253    0.0618177 
    -0.03912   0.00148196  -0.00646249 
  0.00607248   -0.0917472     0.113436 
  0.00947758    0.0394516     0.042098 
   0.0340268   0.00733703   -0.0199811 
   0.0450741    0.0702802   -0.0557648 
  -0.0144371     0.016707    0.0127958 
  -0.0130604 -0.000625149    0.0441488 
   0.0531129     0.041272    -0.107511 
   -0.122106    0.0611517    0.0830173 
   0.0245372   -0.0267815    0.0808352 
   0.0832457    0.0430228  -0.00793817 
  -0.0352458   0.00804254    0.0353683 
  -0.0393768   -0.0437374   -0.0731441 
  -0.0388643    0.0013851    0.0941074 
   0.0708581   5.7138e-05    0.0968469 
  -0.0052391     0.043514    -0.014526 
  -0.0653363    0.0861231    0.0149775 
  -0.0125961   -0.0411607   -0.0166092 
 -0.00889697   -0.0232872     -0.08501 
   0.0168623   -0.0180842   -0.0280527 
  -0.0252402    0.0315187    0.0397737 
   0.0506173    0.0228657    0.0581154 
 -0.00905814   -0.0053646   -0.0202613 
   -0.022675    -0.054258    -0.100902 
  0.00694996    0.0148004    -0.023642 
  -0.0667019    0.0142841    0.0365577 
   0.0179155    0.0248638    0.0691868 
  0.00329526    0.0604825   -0.0445384 
  -0.0417367    0.0835346    -0.140349 
  -0.0511258    -0.020523    0.0120773 
    0.131197    0.0852316    0.0243896 
  -0.0217681   -0.0356226   -0.0438712 
   0.0436744   -0.0193129   -0.0198829 
  -0.0213314    -0.110573  -0.00194319 
   -0.111446    0.0117406   -0.0291332 
  -0.0364041   0.00258765   -0.0355828 
  -0.0570014 -0.000571817  -0.00241231 
  -0.0637344     0.036603   -0.0917067 
-0.000116063    -0.114213    0.0420705 
   0.0525355   -0.0577891   0.00704573 
  -0.0241349    0.0333517   0.00239479 
   0.0245083   -0.0445576    0.0023895 
   0.0718438    0.0430553    0.0720489 
   0.0791092   0.00255161    0.0333861 
   -0.104156    0.0086992   -0.0277244 
   0.0306487    0.0965507   -0.0489155 
  -0.0528451    0.0356301     -0.08759 
  -0.0326889   0.00632575     0.039023 
   0.0133262   -0.0394337     0.147386 
   0.0113994   -0.0423677    0.0227871 
   0.0939535   -0.0264917      0.10816 
  -0.0058095    0.0809519   0.00391473 
   0.0910469    0.0658697   -0.0822047 
 -0.00181509   -0.0229804   -0.0682544 
   0.0982547    0.0161057    0.0013533 
   -0.119862    0.0296225   -0.0860325 
  -0.0392778    -0.118716   -0.0334459 
   0.0477229    0.0542006    0.0797847 
    0.070869    0.0287932    0.0197645 
  -0.0462974    0.0352468    0.0279136 
   -0.109556 -0.000110522    0.0449376 
  -0.0119294   -0.0818821   0.00929415 
 0.000829209    0.0594441    0.0725129 
    0.119616   -0.0339426   -0.0850584 
   0.0222314    -0.024212    0.0674244 
   0.0985844   0.00860257   -0.0977876 
  0.00124817    -0.015569   -0.0420398 
   0.0337357    0.0146857  -0.00345946 
  -0.0164752    0.0642036    0.0356763 
    0.112197    0.0531892   -0.0018838 
  -0.0146687     0.077065  -0.00134276 
   0.0794123     0.042158    0.0333158 
-0.000498849   -0.0226573   -0.0230543 
  -0.0661211  -0.00477938    0.0884057 
   0.0363688    0.0336202    0.0451319 
  -0.0511605     0.125443    0.0776052 
   0.0745858   -0.0247078   -0.0363576 
 -0.00413786    0.0187936   -0.0307738 
    0.100785   -0.0184616    0.0646045 
  -0.0776333   -0.0588018   -0.0113979 
   0.0352608     0.110758    0.0484358 
  -0.0280455   0.00593218     0.179911 
    -0.01727    0.0592795   -0.0242734 
  -0.0335102    0.0538515   -0.0664283 
  -0.0921636    0.0218437   -0.0242329 
  -0.0404862     -0.11422    0.0118216 
    0.012305     0.012398   -0.0377954 
   0.0638702    0.0518078   -0.0254995 
  -0.0492848     0.012733   -0.0342588 
  -0.0839728    -0.105081   -0.0344504 
  -0.0297088   -0.0795301    0.0386572 
  -0.0298681   -0.0291198    0.0141146 
  -0.0594376    0.0216997   -0.0674817 
  -0.0734072   -0.0482161    0.0527027 
   0.0718946    0.0265796   -0.0820509 
   0.0658502   -0.0129565    -0.109449 
  -0.0198416    -0.120018    0.0205291 
   0.0189033    0.0619572    0.0472046 
   -0.161356   -0.0679798   0.00131618 
    0.046835   -0.0975264     0.055793 
  -0.0531978   -0.0123389 -0.000865387 
  0.00476385   -0.0796027     0.125701 
   0.0104381     0.040217      0.04429 
    0.033653    0.0124971   -0.0243099 
   0.0431677    0.0837185   -0.0623562 
 -0.00958226    0.0103909   0.00949561 
  -0.0215663  -0.00326143    0.0513636 
   0.0552503    0.0250026    -0.101788 
   -0.130408    0.0872241    0.0895305 
   0.0234508   -0.0238981    0.0752447 
   0.0967268    0.0432238   -0.0169795 
  -0.0316884    0.0212827    0.0389852 
  -0.0290726   -0.0366131   -0.0857307 
  -0.0640579  -0.00419739     0.100545 
   0.0659682   0.00703759    0.0831539 
  -0.0020489    0.0547285   -0.0157734 
  -0.0667746    0.0881112     0.020381 
 -0.00304632   -0.0361329   -0.0153341 
 -0.00630269   -0.0299053   -0.0694782 
   0.0133211   -0.0153677   -0.0202015 
  -0.0229222    0.0230766    0.0460931 
   0.0558503     0.022627     0.057385 
 -0.00448513   -0.0117082   -0.0210901 
  -0.0102969   -0.0618262    -0.100425 
  0.00544341    0.0155294   -0.0245997 
  -0.0479458    0.0156276    0.0358055 
   0.0114269    0.0132205    0.0628032 
  -0.0165455    0.0712435   -0.0342253 
  -0.0421428    0.0994207    -0.146412 
   -0.032087   -0.0131194    0.0186812 
    0.131688    0.0921278    0.0290838 
  -0.0148634   -0.0372125   -0.0423321 
   0.0456653  -0.00160743   -0.0235713 
  -0.0213266    -0.118787   0.00115957 
   -0.108779   0.00588054   -0.0169732 
   -0.037243   0.00658886   -0.0275553 
  -0.0687107  -0.00019181  -0.00316252 
  -0.0642833    0.0330043   -0.0949641 
 -0.00284152    -0.128763     0.013683 
   0.0467242   -0.0528241   0.00729076 
  -0.0170926    0.0354304   0.00213681 
   0.0445012    -0.042891   0.00748686 
   0.0700795    0.0393126    0.0651698 
   0.0790208    0.0133603    0.0442357 
   -0.115018   -0.0153314   -0.0220937 
   0.0479476    0.0968622    -0.054272 
  -0.0575855     0.031649   -0.0988979 
  -0.0381961   0.00818228    0.0374984 
 0.000597012   -0.0381159     0.170006 
  0.00440326   -0.0462846    0.0132084 
   0.0850971   -0.0219762     0.104337 
-0.000995476    0.0733643    0.0109841 
    0.110825    0.0808545   -0.0724874 
  -0.0134301    -0.027245   -0.0635194 
    0.106705   0.00930268   -0.0221579 
    -0.13389    0.0443551   -0.0748012 
  -0.0294322    -0.119308   -0.0398468 
   0.0302768    0.0523186    0.0824531 
   0.0769737    0.0253245    0.0153923 
  -0.0380536    0.0469289    0.0186037 
  -0.0998668   -0.0266966    0.0489399 
  -0.0301833   -0.0874085    0.0112481 
   0.0390625    0.0661932     0.063187 
     0.11179   -0.0497335    -0.059297 
   0.0313978  -0.00711518    0.0683201 
   0.0822915    0.0162264   -0.0924814 
   0.0119102  -0.00830668   -0.0297058 
   0.0272541    0.0199155   -0.0109307 
 -0.00776227    0.0685399    0.0137308 
    0.104479    0.0554633    0.0137698 
  -0.0136418    0.0796965   0.00201576 
   0.0802789    0.0545299    0.0321136 
  0.00136001   -0.0269284   -0.0194632 
  -0.0586002    0.0153357     0.101869 
   0.0357112    0.0464727    0.0649561 
  -0.0683682      0.12904     0.059856 
    0.078192   -0.0345038   -0.0594976 
  0.00606043    0.0126458   -0.0368936 
    0.114356   -0.0150321    0.0749561 
  -0.0877174   -0.0532013  0.000562979 
   0.0583171    0.0862495    0.0510845 
 -0.00903908    0.0252916     0.173756 
  -0.0258682    0.0692836   -0.0030944 
  -0.0405788    0.0509037   -0.0656264 
   -0.103846    0.0261949   -0.0378582 
  -0.0362255    -0.117808   0.00530598 
  0.00406884    0.0101331   -0.0235563 
   0.0662117    0.0747127   -0.0184359 
   -0.039115   0.00557905   -0.0359938 
  -0.0783992    -0.120788   -0.0216371 
  -0.0319961   -0.0917626    0.0496883 
  -0.0278035   -0.0262793    0.0154616 
   -0.072821    0.0132171   -0.0672984 
  -0.0802012   -0.0383549    0.0368372 
   0.0678092    0.0278926   -0.0824446 
   0.0410565   -0.0179716   -0.0927495 
  -0.0200126    -0.111621    0.0339179 
   0.0211819    0.0624729    0.0355366 
   -0.167781   -0.0784043  -0.00654182 
   0.0473639    -0.101184    0.0604278 
  -0.0428365   -0.0202525  -0.00502265 
  0.00920833   -0.0847273      0.11194 
   0.0141723    0.0278217    0.0328305 
   0.0304642   0.00999252   -0.0203665 
   0.0478825    0.0794245   -0.0545983 
 0.000681346   0.00260176    0.0172874 
  -0.0267945  -0.00780364    0.0477062 
   0.0592625    0.0164124    -0.100499 
   -0.117331    0.0936379    0.0879204 
   0.0366172   -0.0328365    0.0673219 
   0.0914965    0.0451659  -0.00681463 
  -0.0215757    0.0183166    0.0254641 
  -0.0184871   -0.0370401   -0.0878886 
  -0.0691498    0.0126422     0.107212 
   0.0633983   0.00548177    0.0837371 
  -0.0020953     0.067279   -0.0250266 
  -0.0631057    0.0899778    0.0140935 
  0.00379574   -0.0461204   -0.0114873 
  -0.0209805   -0.0194032   -0.0753599 
   0.0103596  -0.00422547  -0.00713834 
  -0.0222508     0.023854    0.0641615 
   0.0697159    0.0461618    0.0582178 
 -0.00265611   -0.0184977  -0.00575063 
  -0.0226903   -0.0464433   -0.0988684 
  0.00574475    0.0163064   -0.0219634 
  -0.0423949    0.0246756    0.0427222 
  0.00991081   0.00305155    0.0617482 
 -0.00989118     0.074919   -0.0269429 
  -0.0294765     0.111149    -0.149648 
  -0.0499959  -0.00145389    0.0403438 
    0.138094    0.0888503     0.030551 
  -0.0145118   -0.0151706   -0.0386284 
   0.0301241   0.00330731   -0.0265091 
  -0.0356903    -0.103639  -0.00230207 
   -0.103451   0.00282525   -0.0127109 
  -0.0519746    0.0110281   -0.0184234 
  -0.0742263    0.0154268  -0.00430576 
  -0.0626232    0.0351605   -0.0800006 
  -0.0110562    -0.129858   0.00827463 
    0.043462   -0.0505347   0.00700726 
  -0.0103496    0.0437804   -0.0197839 
   0.0386027   -0.0253936    0.0154096 
   0.0853081    0.0430093    0.0818384 
   0.0750448   0.00906364     0.055851 
   -0.124102   -0.0152505   -0.0249548 
    0.028949     0.102161    -0.057898 
  -0.0573338    0.0417517    -0.112712 
  -0.0383867   0.00960339    0.0244208 
   0.0155829   -0.0439228     0.184718 
 -0.00282713   -0.0344699    0.0197096 
   0.0780614   -0.0213591    0.0912753 
 -0.00651634    0.0684352    0.0158328 
    0.117201    0.0780298   -0.0808331 
 -0.00805351   -0.0383008    -0.050622 
    0.115432    0.0274668   -0.0319718 
   -0.126066    0.0429802   -0.0855696 
  -0.0271368    -0.108473   -0.0116495 
   0.0174987    0.0354708    0.0606198 
   0.0634575    0.0318944    0.0169013 
  -0.0339797    0.0519776    0.0176407 
   -0.107585   -0.0394758    0.0397715 
  -0.0384906   -0.0877146   0.00534794 
   0.0459354    0.0829562    0.0634528 
    0.107088   -0.0663338   -0.0548402 
   0.0411263   -0.0146291    0.0889016 
   0.0905948    0.0260588   -0.0864594 
  0.00474243   -0.0166929   -0.0185302 
    0.021969    0.0147948   -0.0200382 
  -0.0122964     0.070413   0.00407219 
   0.0791777    0.0609625    0.0112968 
  -0.0133254    0.0911521  -0.00207884 
   0.0877597     0.051761    0.0314377 
 -0.00729742   -0.0159961   -0.0132728 
  -0.0586228    0.0210467     0.096577 
    0.037386    0.0511936    0.0801358 
   -0.069029     0.140829    0.0573863 
   0.0664572   -0.0458888   -0.0402906 
  0.00310918    0.0235452   -0.0373176 
    0.122271   -0.0370042    0.0713423 
  -0.0915537   -0.0666437  -0.00489549 
   0.0594869    0.0744147    0.0590973 
  -0.0155576    0.0229151     0.174182 
  -0.0263839     0.071105   0.00229186 
  -0.0455897    0.0495689    -0.073166 
   -0.100627    0.0212288   -0.0314028 
  -0.0441158    -0.130238  -0.00307937 
    0.013467    0.0214522   -0.0106801 
   0.0706059    0.0671566   -0.0259375 
   -0.017203  0.000220789   -0.0155008 
  -0.0732049    -0.132411   -0.0137543 
  -0.0210508   -0.0902733    0.0544268 
  -0.0318459   -0.0188138     0.014566 
  -0.0744843    0.0134275    -0.071094 
  -0.0782113   -0.0356848    0.0586211 
   0.0864591     0.040271    -0.071407 
   0.0326045    -0.024831   -0.0889336 
  -0.0192427    -0.106938    0.0299738 
   0.0143672    0.0707764    0.0317431 
   -0.159831   -0.0748381    -0.001025 
   0.0478554    -0.103213    0.0683298 
  -0.0563015   0.00243441   0.00327679 
  0.00136959   -0.0882491     0.114006 
   0.0158918    0.0140863    0.0255299 
   0.0248261   0.00419306   -0.0191891 
   0.0398704    0.0670027   -0.0604145 
  0.00927955   0.00309456    0.0246979 
  -0.0168468  -0.00441984    0.0334398 
   0.0458693    0.0263046   -0.0900508 
   -0.126368    0.0970299    0.0904174 
   0.0380873   -0.0379713    0.0693567 
   0.0792142    0.0467342   -0.0109741 
  -0.0167606      0.01932    0.0304864 
  -0.0331533   -0.0522549    -0.083561 
  -0.0678508    0.0233769     0.102426 
   0.0530211    0.0082083     0.103858 
  -0.0189343    0.0752467   -0.0180316 
  -0.0708479    0.0916102    0.0126357 
  0.00377887   -0.0214093   0.00331096 
  -0.0278125    -0.018558   -0.0702094 
  0.00846143   0.00650225     0.020927 
  -0.0178103    0.0246302    0.0620158 
   0.0719663    0.0468502    0.0471146 
 -0.00520424   -0.0198204   0.00706155 
  -0.0341852   -0.0307692   -0.0965315 
  0.00886133   0.00860463   0.00619481 
  -0.0119158    0.0107684    0.0413044 
-0.000895079    0.0142924    0.0787798 
  -0.0107606    0.0572189   -0.0197232 
  -0.0560466     0.117569    -0.145681 
   -0.050726  -0.00314142    0.0502267 
    0.126555    0.0808523    0.0318684 
  -0.0129526   0.00485105   -0.0460721 
   0.0335558  0.000174816   -0.0220197 
   -0.032389    -0.124279    -0.014599 
   -0.094884  -0.00144947   -0.0247451 
  -0.0514133   0.00588315   -0.0205512 
  -0.0512467    0.0302983   -0.0121594 
  -0.0743508    0.0404815   -0.0831234 
     -0.0036     -0.12713    0.0145555 
   0.0593914   -0.0396166   -0.0126935 
   0.0160887    0.0570499   -0.0223374 
   0.0397014   -0.0270561    0.0202704 
   0.0859708    0.0330599    0.0829952 
   0.0622985    0.0136169     0.042532 
    -0.11478 -0.000675836   -0.0202284 
   0.0232434     0.115825   -0.0470445 
  -0.0566607    0.0416638    -0.122677 
  -0.0496098    0.0108703    0.0274066 
   0.0196219   -0.0364496     0.189886 
  0.00218478   -0.0368829    0.0137164 
   0.0849731  -0.00899468    0.0758693 
 -0.00583617    0.0801046   0.00561323 
    0.112916    0.0843641   -0.0794132 
   -0.020173   -0.0205814    -0.041983 
     0.12841    0.0261352   -0.0310725 
   -0.124982     0.053584   -0.0930269 
  -0.0326586    -0.102896  -0.00156696 
   0.0329512    0.0324295    0.0575585 
   0.0797696    0.0234486   0.00956069 
  -0.0386639     0.049256    0.0200081 
   -0.116601   -0.0567782    0.0282318 
  -0.0438247   -0.0910279    0.0111329 
   0.0648915    0.0698009    0.0602814 
    0.105603   -0.0696408   -0.0530482 
   0.0363442   -0.0190697    0.0635947 
   0.0893438    0.0504751   -0.0939689 
  0.00894308   0.00311256  -0.00131633 
   0.0264033    0.0153332   -0.0183359 
   -0.010673    0.0534738   0.00671603 
   0.0775152    0.0699974   0.00246153 
  -0.0217615    0.0865031    0.0116536 
   0.0839186    0.0724769    0.0206683 
   -0.026407   -0.0147548  -0.00801596 
  -0.0558219    0.0373925    0.0895932 
   0.0287552    0.0719885    0.0581585 
  -0.0881925     0.143403    0.0517566 
   0.0691113   -0.0534569   -0.0531676 
-0.000375643    0.0242029   -0.0231857 
    0.128912   -0.0320378    0.0646031 
  -0.0707563   -0.0670198   -0.0197329 
   0.0720963    0.0641106    0.0608533 
    -0.01728    0.0157816     0.176114 
  -0.0227853    0.0754191  -0.00750577 
  -0.0699254    0.0598625   -0.0826433 
  -0.0920199    0.0139187   -0.0377228 
  -0.0243642    -0.120821   -0.0222259 
  0.00151726    0.0267491   -0.0211672 
   0.0727338    0.0600068  -0.00993186 
  -0.0338347  -0.00229972   -0.0221182 
  -0.0743667    -0.130584  -0.00328305 
   -0.023106   -0.0900137     0.053986 
   -0.027738    -0.022465    0.0110602 
   -0.074244  -0.00402157   -0.0772766 
  -0.0863755   -0.0500933    0.0519058 
   0.0811353    0.0313221   -0.0855582 
   0.0203485   -0.0297439     -0.08652 
  -0.0152132    -0.112982    0.0363266 
   0.0141704    0.0736936    0.0404548 
   -0.169622   -0.0698782  0.000538076 
   0.0487459    -0.108639    0.0736088 
  -0.0514203   0.00140882  -0.00646967 
   0.0041935   -0.0851762     0.137952 
   0.0211996     0.018613    0.0210329 
   0.0231789   -0.0046778   0.00277333 
   0.0407782      0.07537   -0.0617298 
  0.00961948   -0.0121822     0.032805 
 -0.00359429   0.00976286    0.0319107 
   0.0300487    0.0248764   -0.0905693 
   -0.130175    0.0890998    0.0905125 
   0.0422787   -0.0469651    0.0685428 
   0.0768319    0.0486294   0.00173371 
  -0.0134771    0.0488416    0.0214291 
  -0.0531026   -0.0610776   -0.0994066 
   -0.076907     0.033657    0.0986568 
   0.0521336    0.0143476     0.120884 
   -0.018085     0.076746  -0.00820955 
  -0.0827817    0.0992072    0.0270091 
  0.00181626   -0.0377572    0.0117092 
  -0.0352587   -0.0121396   -0.0871299 
   0.0198911  -0.00772144    0.0223282 
  -0.0132901     0.019109    0.0429448 
   0.0896068    0.0514426    0.0139828 
  -0.0114682   -0.0188201    0.0154146 
  -0.0448121   -0.0384504   -0.0738255 
-0.000600928    0.0193234   0.00856616 
 -0.00862468    0.0104859    0.0262857 
  0.00499191   0.00355301    0.0785915 
 -0.00113067     0.062006   -0.0181819 
  -0.0635233     0.104421    -0.138925 
  -0.0393846   -0.0128246    0.0501391 
    0.121507    0.0689183    0.0344173 
  -0.0111159   -0.0125796   -0.0468678 
   0.0314842    0.0139742   -0.0183834 
  -0.0335349    -0.125669   -0.0123667 
    -0.11046   -0.0101804   -0.0225195 
  -0.0432705    0.0141011   -0.0151818 
  -0.0489012    0.0170576  -0.00959602 
  -0.0746696    0.0432719   -0.0874336 
  0.00995774    -0.141766   0.00501579 
   0.0540096   -0.0508482   -0.0063122 
   0.0314645    0.0514674   -0.0312865 
    0.028263   -0.0332852    0.0225467 
   0.0797014    0.0478781    0.0996378 
   0.0656283   0.00736488     0.054319 
  -0.0985215  -0.00734017  -0.00643681 
   0.0116604     0.111022   -0.0419336 
  -0.0481088    0.0475588    -0.119342 
  -0.0364447    0.0272739    0.0199146 
   0.0171608   -0.0341354     0.188351 
   0.0050858   -0.0541029    0.0173832 
   0.0761473   -0.0147933    0.0825384 
 0.000229432    0.0818765   -0.0119761 
    0.128493    0.0882989   -0.0929821 
  -0.0300661    -0.033076   -0.0446971 
    0.120877     0.044063   -0.0374414 
   -0.129964    0.0511769    -0.088979 
   -0.043876    -0.114798    -0.011298 
   0.0278018    0.0420708    0.0771271 
    0.091828   0.00987646  0.000191339 
  -0.0359314    0.0594168    0.0387386 
   -0.120043   -0.0588444     0.021938 
  -0.0543383   -0.0923275  -0.00129889 
   0.0627698    0.0663045    0.0602493 
    0.111303   -0.0743932   -0.0530998 
   0.0317772    0.0119457    0.0675649 
   0.0964154    0.0276021    -0.105271 
   0.0061982  -0.00575722   0.00251961 
   0.0029067    0.0128991   -0.0205613 
  -0.0158679    0.0684878  -0.00137776 
   0.0793349    0.0767455   0.00758038 
  -0.0351507    0.0853035    0.0062487 
   0.0936669    0.0639796    0.0212041 
  -0.0118852    -0.013973   -0.0117735 
  -0.0344868    0.0445066    0.0922896 
  0.00998689    0.0730271    0.0361608 
   -0.097764     0.148262    0.0612927 
   0.0539884   -0.0580175   -0.0642507 
 -0.00372293    0.0363798   -0.0159232 
    0.114186    -0.022291    0.0694033 
  -0.0747483   -0.0696824    -0.025248 
   0.0848539    0.0709822    0.0821764 
  0.00150805     0.032271     0.174039 
  -0.0225341     0.075522  -0.00865059 
  -0.0801297    0.0459093   -0.0802515 
  -0.0876329    0.0101783   -0.0215472 
  -0.0419331    -0.107212   -0.0209738 
  0.00344324    0.0185943    -0.032005 
    0.091379    0.0554347   -0.0118189 
  -0.0215787   -0.0242898   -0.0141976 
  -0.0751171     -0.14818   -0.0169603 
  -0.0146115    -0.073816    0.0428274 
  -0.0328648   -0.0264266    0.0170981 
   -0.068533  -0.00273146   -0.0773458 
  -0.0876382   -0.0507719    0.0564425 
   0.0764952     0.047504   -0.0811611 
   0.0150751   -0.0160856   -0.0750191 
  -0.0136987    -0.118285    0.0396899 
     0.01835    0.0697399    0.0591904 
   -0.177829   -0.0665886   -0.0131617 
    0.037308    -0.106936    0.0695825 
  -0.0520618   -0.0014335   -0.0119143 
  0.00241781   -0.0706394      0.13532 
   0.0180954    0.0153297    0.0134662 
   0.0203371    0.0101847  -0.00588745 
   0.0387399    0.0731569   -0.0683526 
  0.00485783   -0.0237656    0.0375786 
  0.00804117  -0.00420509    0.0282894 
   0.0396057    0.0201798   -0.0788349 
   -0.131783    0.0921041     0.100564 
   0.0440186   -0.0434305    0.0562946 
